# .PCD v0.7 - Point Cloud Data file format
VERSION 0.7
FIELDS x y z rgb
SIZE 4 4 4 4
TYPE F F F U
COUNT 1 1 1 1
WIDTH 1128
HEIGHT 1
VIEWPOINT 0 0 0 1 0 0 0
POINTS 1128
DATA ascii
0.15765665 -0.11934461 0.35600001 328965
0.15850855 -0.11934461 0.35600001 723723
0.15891282 -0.11900938 0.35500002 527114
0.15931229 -0.11867414 0.354 723723
0.16015941 -0.11867414 0.354 723723
0.16055173 -0.11833891 0.35300002 986895
0.16139644 -0.11833891 0.35300002 1185814
0.16224118 -0.11833891 0.35300002 1317402
0.16262391 -0.11800367 0.35200003 1645848
0.16346624 -0.11800367 0.35200003 2104600
0.16384178 -0.11766843 0.35100001 3089435
0.16468172 -0.11766843 0.35100001 3154199
0.1650501 -0.1173332 0.35000002 3022613
0.16541368 -0.11699795 0.34900001 3154712
0.16624883 -0.11699795 0.34900001 3155482
0.16660525 -0.11666272 0.34800002 3023896
0.167438 -0.11666272 0.34800002 3023896
0.16778722 -0.11632748 0.347 3155482
0.16861759 -0.11632748 0.347 3286298
0.16895965 -0.11599224 0.34600002 3417882
0.16978763 -0.11599224 0.34600002 3549722
0.17012249 -0.11565701 0.34500003 4076066
0.17094807 -0.11565701 0.34500003 4207139
0.17127575 -0.11532176 0.34400001 4074783
0.17209896 -0.11532176 0.34400001 4074781
0.17241946 -0.11498653 0.34300002 3943965
0.17273518 -0.11465129 0.34200001 4207652
0.17355359 -0.11465129 0.34200001 4076066
0.17386214 -0.11431605 0.34100002 4207139
0.17467813 -0.11431605 0.34100002 4404516
0.17497949 -0.11398081 0.34 4733992
0.17527609 -0.11364558 0.33900002 4471074
0.17608732 -0.11364558 0.33900002 4471074
0.17637673 -0.11331034 0.33800003 5128491
0.17666131 -0.11297511 0.33700001 5390378
0.17746776 -0.11297511 0.33700001 4798243
0.17774521 -0.11263987 0.33600003 5455659
0.17854926 -0.11263987 0.33600003 5456684
0.17881951 -0.11230463 0.33500001 5523247
0.17962115 -0.11230463 0.33500001 5523247
0.17988424 -0.1119694 0.33400002 5390639
0.18068351 -0.1119694 0.33400002 5061163
0.18093939 -0.11163415 0.333 4995885
0.18173628 -0.11163415 0.333 4995883
0.18198498 -0.11129892 0.33200002 5324846
0.18277946 -0.11129892 0.33200002 4930090
0.18302101 -0.11096368 0.33100003 5127469
0.1838131 -0.11096368 0.33100003 4731684
0.18404745 -0.11062844 0.33000001 5388331
0.18427701 -0.11029321 0.32900003 5125411
0.18506432 -0.11029321 0.32900003 5257256
0.18528672 -0.10995796 0.32800001 5127467
0.18607162 -0.10995796 0.32800001 4470824
0.18628682 -0.10962273 0.32700002 4273445
0.18706934 -0.10962273 0.32700002 4929577
0.18727738 -0.10928749 0.32600001 4862750
0.18748064 -0.10895225 0.32500002 5060901
0.18825836 -0.10895225 0.32500002 4996135
0.18903607 -0.10895225 0.32500002 4667170
0.18981381 -0.10895225 0.32500002 4864549
0.19000508 -0.10861701 0.324 4996905
0.19078042 -0.10861701 0.324 4996905
0.19155575 -0.10861701 0.324 4404768
0.19173746 -0.10828178 0.32300001 4469537
0.1925104 -0.10828178 0.32300001 4469539
0.19268495 -0.10794654 0.32200003 4536102
0.1934555 -0.10794654 0.32200003 5193262
0.19422604 -0.10794654 0.32200003 4535332
0.19439098 -0.1076113 0.32100001 4534303
0.19515914 -0.1076113 0.32100001 4929061
0.19531694 -0.10727607 0.32000002 5323303
0.1960827 -0.10727607 0.32000002 5652268
0.1962333 -0.10694082 0.31900001 5850417
0.19699666 -0.10694082 0.31900001 5390126
0.19776002 -0.10694082 0.31900001 5060649
0.19790107 -0.10660559 0.31800002 5126442
0.19866204 -0.10660559 0.31800002 5323819
0.1987959 -0.10627034 0.317 5850163
0.19955446 -0.10627034 0.317 5981749
0.20031305 -0.10627034 0.317 5848880
0.20043734 -0.10593511 0.31600001 5716524
0.20119353 -0.10593511 0.31600001 5256745
0.20131062 -0.10559988 0.31500003 5586221
0.20206442 -0.10559988 0.31500003 5651501
0.20281821 -0.10559988 0.31500003 5125159
0.20292574 -0.10526463 0.31400001 5322536
0.20367715 -0.10526463 0.31400001 5191456
-0.10572848 -0.076221436 0.22900002 5455405
-0.10518047 -0.076221436 0.22900002 5521450
-0.10508938 -0.076554276 0.23 5324073
-0.10453899 -0.076554276 0.23 5389612
-0.1039886 -0.076554276 0.23 5323049
-0.10343822 -0.076554276 0.23 5191717
-0.10288782 -0.076554276 0.23 5323303
-0.10233743 -0.076554276 0.23 5586475
-0.03575458 -0.055917911 0.16800001 5322272
-0.034950536 -0.055917911 0.16800001 5453091
-0.034548514 -0.055917911 0.16800001 5387811
-0.034349743 -0.056250755 0.16900001 5650983
-0.033945326 -0.056250755 0.16900001 5453604
-0.033540908 -0.056250755 0.16900001 5782569
-0.033136494 -0.056250755 0.16900001 5716263
-0.032732077 -0.056250755 0.16900001 5715747
-0.032327659 -0.056250755 0.16900001 5848103
-0.032112136 -0.056583595 0.17 5519138
-0.031705327 -0.056583595 0.17 5519138
-0.031298518 -0.056583595 0.17 5256479
-0.030891709 -0.056583595 0.17 5388065
-0.030664224 -0.056916442 0.171 5453604
-0.030255022 -0.056916442 0.171 5716776
-0.029845819 -0.056916442 0.171 5650983
-0.02960876 -0.057249285 0.17200001 5453604
-0.029197166 -0.057249285 0.17200001 5584677
-0.028785571 -0.057249285 0.17200001 5518884
-0.028373977 -0.057249285 0.17200001 5584677
-0.027962381 -0.057249285 0.17200001 5716776
-0.027710963 -0.057582133 0.17300001 5783087
-0.027296975 -0.057582133 0.17300001 5256743
-0.026882989 -0.057582133 0.17300001 5388583
-0.026469002 -0.057582133 0.17300001 4598297
-0.02620562 -0.057914976 0.17400001 5256227
-0.02578924 -0.057914976 0.17400001 5848364
-0.025372857 -0.057914976 0.17400001 6177075
-0.024956476 -0.057914976 0.17400001 5650985
-0.02468113 -0.058247823 0.17500001 5914155
-0.024262356 -0.058247823 0.17500001 5255966
-0.023843583 -0.058247823 0.17500001 5387552
-0.02342481 -0.058247823 0.17500001 5914155
-0.023137497 -0.058580667 0.17600001 5914155
-0.02271633 -0.058580667 0.17600001 5717546
-0.022295162 -0.058580667 0.17600001 5322788
-0.021873996 -0.058580667 0.17600001 5585960
-0.021452827 -0.058580667 0.17600001 5782569
-0.021031661 -0.058580667 0.17600001 5518884
-0.020727599 -0.058913507 0.177 6176046
-0.020304037 -0.058913507 0.177 6373423
-0.019880477 -0.058913507 0.177 5847849
-0.019456917 -0.058913507 0.177 6176814
-0.018288985 -0.059246354 0.178 5716517
-0.017963385 -0.059579197 0.17900001 5782823
-0.01753504 -0.059579197 0.17900001 5980200
-0.017106693 -0.059579197 0.17900001 5980200
-0.016678346 -0.059579197 0.17900001 6769716
-0.016340783 -0.059912045 0.18000001 5914407
-0.015910044 -0.059912045 0.18000001 5717028
-0.015479305 -0.059912045 0.18000001 6111788
-0.015048566 -0.059912045 0.18000001 5848616
-0.014699038 -0.060244888 0.18100001 5848103
-0.014265905 -0.060244888 0.18100001 6242861
-0.013832773 -0.060244888 0.18100001 5715493
-0.013399642 -0.060244888 0.18100001 5847079
-0.013038147 -0.060577735 0.18200001 5978665
-0.012602623 -0.060577735 0.18200001 6044458
-0.012167096 -0.060577735 0.18200001 5584931
-0.011731572 -0.060577735 0.18200001 5717030
-0.011358114 -0.060910579 0.18300001 5256995
-0.010920195 -0.060910579 0.18300001 5520167
-0.010482277 -0.060910579 0.18300001 5652007
-0.01004436 -0.060910579 0.18300001 5388833
-0.0096589355 -0.061243426 0.18400002 5651235
-0.0092186239 -0.061243426 0.18400002 5848101
-0.0087783122 -0.061243426 0.18400002 6044710
-0.0083380025 -0.061243426 0.18400002 5715745
-0.0079406127 -0.061576266 0.185 5847331
-0.0074979081 -0.061576266 0.185 5716515
-0.0070552044 -0.061576266 0.185 5848099
-0.0066125002 -0.061576266 0.185 6177064
-0.006169796 -0.061576266 0.185 6242857
-0.0057580494 -0.061909109 0.186 5979685
-0.0053129522 -0.061909109 0.186 6308650
-0.0048678555 -0.061909109 0.186 5913894
-0.0044227582 -0.061909109 0.186 5979689
-0.0039990465 -0.062241957 0.18700001 5848103
-0.0035515563 -0.062241957 0.18700001 5912872
-0.0031040662 -0.062241957 0.18700001 6045228
-0.0026565762 -0.062241957 0.18700001 5913896
-0.0022208996 -0.062574804 0.18800001 6506031
-0.0017710165 -0.062574804 0.18800001 6177066
-0.0013211333 -0.062574804 0.18800001 6242859
-0.00087588467 -0.062907644 0.18900001 6177066
-0.00042360852 -0.062907644 0.18900001 5848101
2.8667524e-05 -0.062907644 0.18900001 5913896
0.00048094359 -0.062907644 0.18900001 5716517
0.00093815732 -0.063240491 0.19000001 5716517
0.0013928264 -0.063240491 0.19000001 6308652
0.0018474954 -0.063240491 0.19000001 6439468
0.0027713433 -0.063573338 0.19100001 5848103
0.0032453076 -0.063906178 0.192 5453091
0.003704763 -0.063906178 0.192 6505781
0.0041859066 -0.064239025 0.193 6505779
0.0046477546 -0.064239025 0.193 5913896
0.0051096026 -0.064239025 0.193 5913896
0.0056003183 -0.064571872 0.19400001 5978919
0.0060645593 -0.064571872 0.19400001 5584931
0.0065288004 -0.064571872 0.19400001 5782310
0.0070290882 -0.064904712 0.19500001 6374447
0.0074957218 -0.064904712 0.19500001 6703410
0.0079623563 -0.064904712 0.19500001 5979687
0.0084722163 -0.065237559 0.19600001 6243122
0.0089412425 -0.065237559 0.19600001 6177329
0.0094582811 -0.065570407 0.19700001 6308913
0.0099297017 -0.065570407 0.19700001 6243374
0.010401121 -0.065570407 0.19700001 6571822
0.010927732 -0.065903254 0.19800001 6374443
0.011401545 -0.065903254 0.19800001 5979948
0.012952508 -0.066568933 0.2 5848362
0.013498263 -0.066901781 0.20100001 6440499
0.013979255 -0.066901781 0.20100001 6046765
0.014532189 -0.067234628 0.20200001 6112558
0.01508991 -0.067567475 0.20300001 6244142
0.015575686 -0.067567475 0.20300001 6111784
0.016140584 -0.067900315 0.20400001 6375210
0.01671027 -0.068233162 0.20500001 6375210
0.017200833 -0.068233162 0.20500001 5783589
0.017691398 -0.068233162 0.20500001 5718313
0.018270655 -0.068566009 0.20600002 6047278
0.018763611 -0.068566009 0.20600002 5784106
0.019350048 -0.068898857 0.20700002 6047278
0.019845398 -0.068898857 0.20700002 5913642
0.02043901 -0.069231696 0.208 5979435
0.021037413 -0.069564536 0.20900001 6374193
0.02286133 -0.070563078 0.21200001 5782569
0.023478873 -0.070895918 0.21300001 6243120
0.024101203 -0.071228765 0.21400002 5979950
0.024613306 -0.071228765 0.21400002 6374706
0.025242813 -0.071561605 0.215 5323042
0.025757307 -0.071561605 0.215 5125663
0.026393997 -0.071894452 0.21600001 5783591
0.027035471 -0.072227299 0.21700001 5651237
0.027681731 -0.072560139 0.21800001 5716265
0.028203404 -0.072560139 0.21800001 5520169
0.028856846 -0.072892986 0.21900001 5717546
0.029515071 -0.073225833 0.22000001 5191202
0.030041529 -0.073225833 0.22000001 5454887
0.030706933 -0.073558681 0.22100002 5323301
0.031377122 -0.073891521 0.22200002 5125922
0.031908367 -0.073891521 0.22200002 5125924
0.032585736 -0.074224368 0.223 5125924
0.033267893 -0.074557208 0.22400001 5060131
0.033803921 -0.074557208 0.22400001 4994338
0.034493256 -0.074890055 0.22500001 4994338
0.035187375 -0.075222902 0.22600001 4994084
0.035886284 -0.075555742 0.22700001 5059877
0.036429495 -0.075555742 0.22700001 4600098
0.037135579 -0.075888589 0.22800002 4731682
0.03784645 -0.076221436 0.22900002 4600610
0.038394447 -0.076221436 0.22900002 4403744
0.039112493 -0.076554276 0.23 4666916
0.03983533 -0.076887123 0.23100001 4732711
0.040562954 -0.077219971 0.23200001 4798504
0.041295364 -0.07755281 0.23300001 4600614
0.042032558 -0.077885658 0.23400001 4731946
0.042592518 -0.077885658 0.23400001 4863532
0.043336891 -0.078218505 0.23500001 4534567
0.04408605 -0.078551352 0.23600002 4271395
0.044839997 -0.078884192 0.23700002 4468774
0.045407135 -0.078884192 0.23700002 4074016
0.046168257 -0.079217032 0.23800001 4468774
0.046934169 -0.079549879 0.23900001 4337188
0.047704864 -0.079882726 0.24000001 4534567
0.048279185 -0.079882726 0.24000001 4731432
0.049057059 -0.080215573 0.24100001 4730662
0.04983972 -0.080548413 0.24200001 4534307
0.050627168 -0.08088126 0.24300002 4403235
0.0514194 -0.081214108 0.24400002 4337955
0.052003291 -0.081214108 0.24400002 4271908
0.052802704 -0.081546947 0.245 4271910
0.053606901 -0.081879795 0.24600001 4403494
0.054195575 -0.081879795 0.24600001 4337955
0.055006955 -0.082212634 0.24700001 4403748
0.055598024 -0.082212634 0.24700001 4008990
0.056416579 -0.082545482 0.24800001 4403748
0.057239924 -0.082878329 0.24900001 3943197
0.058068048 -0.083211169 0.25 4008990
0.058900967 -0.083544016 0.25100002 3877404
0.059738662 -0.083876856 0.252 3679512
0.060581151 -0.08420971 0.25300002 4008223
0.06142842 -0.08454255 0.25400001 3942943
0.062036242 -0.08454255 0.25400001 3943713
0.062890701 -0.084875397 0.25500003 3943967
0.063749932 -0.085208237 0.25600001 4074781
0.064362533 -0.085208237 0.25600001 4271647
0.065228954 -0.085541084 0.257 3877402
0.066100158 -0.085873932 0.25800002 3943197
0.06671755 -0.085873932 0.25800002 3943197
0.067595921 -0.086206771 0.259 3943197
0.068479098 -0.086539619 0.26000002 3877404
0.069367051 -0.086872466 0.26100001 3877404
0.070259787 -0.087205313 0.26200002 3943197
0.071157314 -0.087538153 0.26300001 3877404
0.072059616 -0.087870993 0.264 3811357
0.072966717 -0.088203847 0.26500002 3943197
0.073878601 -0.088536687 0.266 3745818
0.074515134 -0.088536687 0.266 3877404
0.075434208 -0.088869534 0.26700002 3812381
0.076358043 -0.089202374 0.26800001 3615002
0.076999374 -0.089202374 0.26800001 3483162
0.077930398 -0.089535229 0.26900002 3417371
0.078866214 -0.089868069 0.27000001 3483164
0.07980682 -0.090200916 0.27100003 3417371
0.080752194 -0.090533756 0.27200001 3285531
0.081403092 -0.090533756 0.27200001 3219738
0.082355648 -0.090866596 0.273 3351324
0.083313003 -0.09119945 0.27400002 3088919
0.084275141 -0.09153229 0.27500001 2826517
0.085242063 -0.091865137 0.27600002 2826517
0.086213768 -0.092197977 0.27700001 2694161
0.087503895 -0.092863671 0.27900001 2891540
0.088487566 -0.093196511 0.28 2497298
0.089476027 -0.093529359 0.28100002 2168849
0.090469271 -0.093862198 0.28200001 2037265
0.091790512 -0.094527893 0.28400001 2168851
0.092795722 -0.09486074 0.28500003 2103056
0.093477726 -0.09486074 0.28500003 2103308
0.094490103 -0.09519358 0.28600001 2169101
0.095507279 -0.09552642 0.287 1642757
0.099966191 -0.097190656 0.29200003 2168587
0.10135443 -0.097856335 0.294 1708550
0.10240512 -0.098189183 0.29500002 1576964
0.10346057 -0.098522022 0.296 1708296
0.10452083 -0.098854877 0.29700002 1577225
0.10558585 -0.099187717 0.29800001 1577227
0.10629897 -0.099187717 0.29800001 1445639
0.10737118 -0.099520564 0.29900002 1380616
0.10808669 -0.099520564 0.29900002 1381129
0.10916608 -0.099853404 0.30000001 1183750
0.10988397 -0.099853404 0.30000001 1183752
0.11097056 -0.10018626 0.30100003 1314825
0.11243296 -0.10085194 0.303 1249032
0.1195203 -0.10451323 0.31400001 985860
0.12065473 -0.10484608 0.31500003 920580
0.12179395 -0.10517892 0.31600001 526595
0.12255013 -0.10517892 0.31600001 264195
0.12330632 -0.10517892 0.31600001 395528
0.12445511 -0.10551176 0.317 263942
0.12521368 -0.10551176 0.317 395528
0.14969011 -0.12315253 0.37 198151
0.15016855 -0.12281969 0.36900002 328965
0.15064222 -0.12248685 0.36800003 329218
0.15069933 -0.12182116 0.36600003 394758
0.15116103 -0.12148831 0.36500001 526346
0.15161794 -0.12115547 0.36400002 263944
0.15207006 -0.12082262 0.36300001 527114
0.15251741 -0.12048978 0.36200002 395528
0.15295996 -0.12015694 0.36100003 526597
0.15339772 -0.11982409 0.36000001 526597
0.1542592 -0.11982409 0.36000001 395009
0.1546898 -0.11949125 0.35900003 395009
0.15511559 -0.11915839 0.35800001 527367
0.15553661 -0.11882555 0.35700002 263942
0.15639092 -0.11882555 0.35700002 461321
0.15680474 -0.11849271 0.35600001 263942
0.15765665 -0.11849271 0.35600001 526344
0.15806332 -0.11815987 0.35500002 592907
0.15891282 -0.11815987 0.35500002 659983
0.15931229 -0.11782701 0.354 593677
0.15970699 -0.11749417 0.35300002 592907
0.16055173 -0.11749417 0.35300002 724495
0.16139644 -0.11749417 0.35300002 1448988
0.16178158 -0.11716133 0.35200003 1646367
0.16262391 -0.11716133 0.35200003 2236188
0.16300184 -0.11682849 0.35100001 2563095
0.16384178 -0.11682849 0.35100001 2628884
0.16421255 -0.11649565 0.35000002 3285785
0.1650501 -0.11649565 0.35000002 3154197
0.16541368 -0.11616279 0.34900001 3088917
0.16577248 -0.11582995 0.34800002 3089687
0.16660525 -0.11582995 0.34800002 3287066
0.16695684 -0.1154971 0.347 3024410
0.16778722 -0.1154971 0.347 3090203
0.16813166 -0.11516427 0.34600002 2826263
0.16895965 -0.11516427 0.34600002 2760724
0.16929692 -0.11483143 0.34500003 3878174
0.17012249 -0.11483143 0.34500003 4141344
0.17094807 -0.11483143 0.34500003 4074781
0.17127575 -0.11449857 0.34400001 3678998
0.17159867 -0.11416573 0.34300002 4271647
0.17241946 -0.11416573 0.34300002 4206367
0.17273518 -0.11383288 0.34200001 3747871
0.17355359 -0.11383288 0.34200001 3550492
0.17386214 -0.11350004 0.34100002 4141857
0.17467813 -0.11350004 0.34100002 4273695
0.17497949 -0.11316719 0.34 4404768
0.17527609 -0.11283435 0.33900002 4865319
0.17608732 -0.11283435 0.33900002 4864549
0.17637673 -0.11250151 0.33800003 5127719
0.17666131 -0.11216866 0.33700001 5259305
0.17746776 -0.11216866 0.33700001 5390380
0.17774521 -0.11183582 0.33600003 5324333
0.17854926 -0.11183582 0.33600003 5455919
0.17881951 -0.11150297 0.33500001 5457202
0.17962115 -0.11150297 0.33500001 5259825
0.17988424 -0.11117013 0.33400002 5719606
0.18068351 -0.11117013 0.33400002 5455407
0.18093939 -0.11083728 0.333 5389614
0.18173628 -0.11083728 0.333 4139547
0.18198498 -0.11050444 0.33200002 5192749
0.18277946 -0.11050444 0.33200002 4798504
0.18302101 -0.11017159 0.33100003 4930090
0.18325776 -0.10983875 0.33000001 4600612
0.18404745 -0.10983875 0.33000001 4665123
0.18427701 -0.10950591 0.32900003 4795424
0.1845018 -0.10917306 0.32800001 5059879
0.18528672 -0.10917306 0.32800001 4665891
0.18550433 -0.10884021 0.32700002 4535332
0.18628682 -0.10884021 0.32700002 4272160
0.18649726 -0.10850736 0.32600001 4732963
0.18727738 -0.10850736 0.32600001 4732448
0.18748064 -0.10817453 0.32500002 4469276
0.18825836 -0.10817453 0.32500002 4864549
0.18903607 -0.10817453 0.32500002 4667170
0.18922974 -0.10784168 0.324 4668199
0.19000508 -0.10784168 0.324 4537383
0.19078042 -0.10784168 0.324 4669223
0.19096453 -0.10750884 0.32300001 4734246
0.19173746 -0.10750884 0.32300001 4535332
0.1925104 -0.10750884 0.32300001 4601895
0.19268495 -0.10717599 0.32200003 4668203
0.1934555 -0.10717599 0.32200003 4141346
0.19362284 -0.10684314 0.32100001 5192751
0.19439098 -0.10684314 0.32100001 4468510
0.19455117 -0.1065103 0.32000002 5060131
0.19531694 -0.1065103 0.32000002 5455659
0.1960827 -0.1065103 0.32000002 4929315
0.1962333 -0.10617746 0.31900001 5915956
0.19699666 -0.10617746 0.31900001 4665891
0.1971401 -0.10584461 0.31800002 5192751
0.19790107 -0.10584461 0.31800002 5127469
0.19866204 -0.10584461 0.31800002 5324848
0.1987959 -0.10551176 0.317 5653298
0.19955446 -0.10551176 0.317 5653038
0.19968115 -0.10517892 0.31600001 5653038
0.20043734 -0.10517892 0.31600001 5718061
0.20119353 -0.10517892 0.31600001 5915440
0.20131062 -0.10484608 0.31500003 5257510
0.20206442 -0.10484608 0.31500003 5455405
0.20281821 -0.10484608 0.31500003 5389612
0.20292574 -0.10451323 0.31400001 5191715
0.20367715 -0.10451323 0.31400001 5257760
-0.10581238 -0.07534299 0.22800002 5126442
-0.10572848 -0.075673446 0.22900002 5191717
-0.10518047 -0.075673446 0.22900002 5454889
-0.10408448 -0.075673446 0.22900002 5389866
-0.1039886 -0.076003894 0.23 5191463
-0.10343822 -0.076003894 0.23 5257510
-0.10288782 -0.076003894 0.23 5520169
-0.10233743 -0.076003894 0.23 5651755
-0.10178705 -0.076003894 0.23 5190950
-0.034950536 -0.055515889 0.16800001 5321507
-0.034548514 -0.055515889 0.16800001 5518886
-0.034349743 -0.055846341 0.16900001 5453093
-0.033945326 -0.055846341 0.16900001 5584677
-0.033540908 -0.055846341 0.16900001 5913642
-0.033136494 -0.055846341 0.16900001 5782310
-0.032732077 -0.055846341 0.16900001 5716517
-0.032327659 -0.055846341 0.16900001 5716517
-0.032112136 -0.056176789 0.17 5519138
-0.031705327 -0.056176789 0.17 5321759
-0.031298518 -0.056176789 0.17 5322272
-0.031073425 -0.056507241 0.171 5651237
-0.030664224 -0.056507241 0.171 5782823
-0.030255022 -0.056507241 0.171 5848616
-0.029845819 -0.056507241 0.171 5716776
-0.02960876 -0.056837693 0.17200001 5453604
-0.029197166 -0.056837693 0.17200001 5387811
-0.028785571 -0.056837693 0.17200001 5650983
-0.028373977 -0.056837693 0.17200001 5519397
-0.027962381 -0.056837693 0.17200001 5650983
-0.027710963 -0.057168145 0.17300001 5125411
-0.027296975 -0.057168145 0.17300001 5191204
-0.026882989 -0.057168145 0.17300001 5322788
-0.026469002 -0.057168145 0.17300001 5388581
-0.02620562 -0.0574986 0.17400001 5322018
-0.02578924 -0.0574986 0.17400001 5322018
-0.025372857 -0.0574986 0.17400001 5716263
-0.024956476 -0.0574986 0.17400001 6374447
-0.02468113 -0.057829052 0.17500001 5913896
-0.024262356 -0.057829052 0.17500001 5649954
-0.023843583 -0.057829052 0.17500001 5913126
-0.02342481 -0.057829052 0.17500001 5782310
-0.023137497 -0.058159504 0.17600001 5782310
-0.02271633 -0.058159504 0.17600001 5388835
-0.022295162 -0.058159504 0.17600001 5388835
-0.021873996 -0.058159504 0.17600001 5651237
-0.021452827 -0.058159504 0.17600001 5848103
-0.021031661 -0.058159504 0.17600001 5583907
-0.019880477 -0.058489952 0.177 5913642
-0.019566845 -0.058820404 0.178 5782056
-0.01914089 -0.058820404 0.178 5848103
-0.018714938 -0.058820404 0.178 6045480
-0.018288985 -0.058820404 0.178 5913894
-0.017863031 -0.058820404 0.178 5716515
-0.01753504 -0.059150856 0.17900001 5980200
-0.017106693 -0.059150856 0.17900001 5782821
-0.016678346 -0.059150856 0.17900001 5782821
-0.016250001 -0.059150856 0.17900001 5848101
-0.015910044 -0.059481308 0.18000001 5980202
-0.015479305 -0.059481308 0.18000001 5650983
-0.015048566 -0.059481308 0.18000001 5519397
-0.014699038 -0.05981176 0.18100001 6243374
-0.013473673 -0.060142212 0.18200001 5584931
-0.013038147 -0.060142212 0.18200001 5978665
-0.012602623 -0.060142212 0.18200001 5979435
-0.012167096 -0.060142212 0.18200001 5321505
-0.011731572 -0.060142212 0.18200001 5124126
-0.011358114 -0.060472663 0.18300001 5058848
-0.010920195 -0.060472663 0.18300001 4993053
-0.010482277 -0.060472663 0.18300001 5651235
-0.01004436 -0.060472663 0.18300001 5519136
-0.0096589355 -0.060803119 0.18400002 6045480
-0.0092186239 -0.060803119 0.18400002 5913124
-0.0087783122 -0.060803119 0.18400002 6044710
-0.0083380025 -0.060803119 0.18400002 5978919
-0.0079406127 -0.061133564 0.185 5847333
-0.0074979081 -0.061133564 0.185 5782310
-0.0070552044 -0.061133564 0.185 5980200
-0.0066125002 -0.061133564 0.185 6111784
-0.0062031462 -0.061464015 0.186 6177064
-0.0057580494 -0.061464015 0.186 6242857
-0.0053129522 -0.061464015 0.186 5913892
-0.0048678555 -0.061464015 0.186 6177064
-0.0044227582 -0.061464015 0.186 6177064
-0.0039990465 -0.061794471 0.18700001 5979685
-0.0035515563 -0.061794471 0.18700001 5913642
-0.0031040662 -0.061794471 0.18700001 6242607
-0.0026565762 -0.061794471 0.18700001 6242607
-0.0022208996 -0.062124923 0.18800001 6045228
-0.0017710165 -0.062124923 0.18800001 6045228
-0.0013211333 -0.062124923 0.18800001 6177068
-0.00087588467 -0.062455375 0.18900001 6242861
-0.00042360852 -0.062455375 0.18900001 5913894
2.8667524e-05 -0.062455375 0.18900001 5782308
0.00048094359 -0.062455375 0.18900001 6177066
0.00093815732 -0.062785827 0.19000001 6177579
0.0013928264 -0.062785827 0.19000001 5980202
0.0018474954 -0.062785827 0.19000001 6111786
0.0023142812 -0.063116282 0.19100001 6111786
0.0027713433 -0.063116282 0.19100001 5058585
0.0032453076 -0.063446723 0.192 5584161
0.003704763 -0.063446723 0.192 5912872
0.0041859066 -0.063777179 0.193 6110251
0.0046477546 -0.063777179 0.193 6373423
0.0051096026 -0.063777179 0.193 5913642
0.0056003183 -0.064107634 0.19400001 6242607
0.0060645593 -0.064107634 0.19400001 6242607
0.0065288004 -0.064107634 0.19400001 6374447
0.0070290882 -0.064438082 0.19500001 6440238
0.0074957218 -0.064438082 0.19500001 6506031
0.0080031892 -0.064768538 0.19600001 6506033
0.0084722163 -0.064768538 0.19600001 6768951
0.0089412425 -0.064768538 0.19600001 6242607
0.0094582811 -0.065098986 0.19700001 6177068
0.0099297017 -0.065098986 0.19700001 6177068
0.010453919 -0.065429442 0.19800001 5913124
0.010927732 -0.065429442 0.19800001 6242859
0.011459129 -0.06575989 0.19900002 5980200
0.011935335 -0.06575989 0.19900002 5783591
0.01247391 -0.066090338 0.2 6178351
0.012952508 -0.066090338 0.2 5849386
0.013498263 -0.066420794 0.20100001 5783593
0.014048804 -0.066751242 0.20200001 5849386
0.014532189 -0.066751242 0.20200001 5849386
0.01508991 -0.067081697 0.20300001 5849386
0.015652414 -0.067412153 0.20400001 6111786
0.016140584 -0.067412153 0.20400001 5914407
0.01671027 -0.067742601 0.20500001 5914407
0.017200833 -0.067742601 0.20500001 5914409
0.017777698 -0.068073057 0.20600002 6178099
0.018270655 -0.068073057 0.20600002 6178099
0.018854696 -0.068403505 0.20700002 5849132
0.019350048 -0.068403505 0.20700002 5849132
0.019941268 -0.068733953 0.208 6243120
0.02043901 -0.068733953 0.208 5914155
0.021037413 -0.069064409 0.20900001 6176814
0.02224857 -0.069725312 0.21100001 6440499
0.02286133 -0.07005576 0.21200001 6243120
0.023478873 -0.070386216 0.21300001 6111534
0.024101203 -0.070716672 0.21400002 6111534
0.024728321 -0.071047112 0.215 5979948
0.025242813 -0.071047112 0.215 5782569
0.025877109 -0.071377568 0.21600001 5651753
0.026393997 -0.071377568 0.21600001 5585960
0.027035471 -0.071708024 0.21700001 5716776
0.027681731 -0.072038472 0.21800001 5453604
0.028332777 -0.072368927 0.21900001 5388583
0.028856846 -0.072368927 0.21900001 5520169
0.029515071 -0.072699375 0.22000001 5585960
0.030178081 -0.073029831 0.22100002 5520421
0.030845879 -0.073360279 0.22200002 5323042
0.031377122 -0.073360279 0.22200002 4928284
0.032052096 -0.073690727 0.223 5190434
0.032731861 -0.074021183 0.22400001 5191204
0.033267893 -0.074021183 0.22400001 4862752
0.033954833 -0.074351631 0.22500001 5653038
0.03464656 -0.074682087 0.22600001 4863268
0.035187375 -0.074682087 0.22600001 4862498
0.035886284 -0.075012542 0.22700001 4862500
0.036589976 -0.07534299 0.22800002 4731684
0.037135579 -0.07534299 0.22800002 4994856
0.03784645 -0.075673446 0.22900002 4797991
0.038562104 -0.076003894 0.23 4469537
0.039282549 -0.076334342 0.23100001 4535330
0.040007778 -0.076664798 0.23200001 4469539
0.040737797 -0.076995246 0.23300001 4535332
0.041295364 -0.076995246 0.23300001 4732713
0.042032558 -0.077325702 0.23400001 4468774
0.042774536 -0.07765615 0.23500001 4074529
0.043521304 -0.077986605 0.23600002 4535080
0.04408605 -0.077986605 0.23600002 4337701
0.044839997 -0.078317061 0.23700002 4337188
0.045598727 -0.078647509 0.23800001 4468774
0.046362244 -0.078977957 0.23900001 4534567
0.046934169 -0.078977957 0.23900001 4337701
0.047704864 -0.079308413 0.24000001 4534567
0.048480347 -0.079638861 0.24100001 4599846
0.049260616 -0.079969317 0.24200001 4599846
0.050045669 -0.080299765 0.24300002 4665639
0.050627168 -0.080299765 0.24300002 4403235
0.0514194 -0.08063022 0.24400002 4403748
0.052216414 -0.080960669 0.245 3943967
0.053018223 -0.081291117 0.24600001 4206369
0.053606901 -0.081291117 0.24600001 4337955
0.054415885 -0.081621572 0.24700001 4337955
0.055006955 -0.081621572 0.24700001 4206369
0.055823117 -0.081952028 0.24800001 4074529
0.056644063 -0.082282476 0.24900001 4074529
0.0574698 -0.082612924 0.25 4008736
0.058300324 -0.08294338 0.25100002 4074529
0.059135627 -0.083273828 0.252 3942943
0.059975725 -0.083604284 0.25300002 3548185
0.060820598 -0.083934732 0.25400001 3811357
0.061670266 -0.084265187 0.25500003 3877150
0.062280484 -0.084265187 0.25500003 4206369
0.063137323 -0.084595636 0.25600001 4206369
0.063749932 -0.084595636 0.25600001 4008475
0.064613953 -0.084926084 0.257 4008475
0.065482765 -0.085256547 0.25800002 3811609
0.066100158 -0.085256547 0.25800002 3877404
0.066976145 -0.085586987 0.259 3943197
0.067856915 -0.08591745 0.26000002 4074783
0.068742476 -0.086247899 0.26100001 3877404
0.069367051 -0.086247899 0.26100001 3943197
0.070527956 -0.086908802 0.26300001 3811611
0.071427867 -0.087239251 0.264 3942943
0.072332576 -0.087569706 0.26500002 4008738
0.072966717 -0.087569706 0.26500002 3811357
0.073878601 -0.087900154 0.266 4074783
0.074795268 -0.08823061 0.26700002 3482646
0.075716726 -0.088561058 0.26800001 4008990
0.076358043 -0.088561058 0.26800001 3812381
0.077286683 -0.088891514 0.26900002 3614748
0.078220099 -0.089221962 0.27000001 3219990
0.079158314 -0.089552417 0.27100003 3482394
0.080101304 -0.089882866 0.27200001 3811359
0.080752194 -0.089882866 0.27200001 3416601
0.081702366 -0.090213314 0.273 3022613
0.082657322 -0.090543769 0.27400002 3285785
0.083617061 -0.090874217 0.27500001 2628886
0.084275141 -0.090874217 0.27500001 2563091
0.085550904 -0.091535121 0.27700001 2629138
0.086525016 -0.091865584 0.27800003 2694931
0.090790085 -0.09351784 0.28300002 2366743
0.091790512 -0.093848288 0.28400001 1971985
0.092795722 -0.094178744 0.28500003 2103569
0.10309939 -0.098144159 0.29700002 1577223
0.10415962 -0.098474607 0.29800001 1511430
0.10487274 -0.098474607 0.29800001 1577225
0.10594017 -0.098805062 0.29900002 1511432
0.10665568 -0.098805062 0.29900002 1577225
0.10773028 -0.099135511 0.30000001 1380616
0.10844818 -0.099135511 0.30000001 1314823
0.10916608 -0.099135511 0.30000001 1052166
0.10988397 -0.099135511 0.30000001 1052166
0.11914714 -0.10409229 0.31500003 920067
0.12142079 -0.10475319 0.317 722947
0.12217937 -0.10475319 0.317 723717
0.12293794 -0.10475319 0.317 263942
0.12369652 -0.10475319 0.317 263942
0.14782865 -0.12292803 0.37200001 263942
0.14831907 -0.12259759 0.37100002 198151
0.14920688 -0.12259759 0.37100002 198151
0.14969011 -0.12226713 0.37 132358
0.15016855 -0.12193668 0.36900002 263942
0.15064222 -0.12160624 0.36800003 263942
0.15069933 -0.12094533 0.36600003 461321
0.15116103 -0.12061487 0.36500001 395528
0.15161794 -0.12028442 0.36400002 395530
0.15207006 -0.11995397 0.36300001 395530
0.15251741 -0.11962352 0.36200002 263942
0.15295996 -0.11929307 0.36100003 526344
0.15339772 -0.11896262 0.36000001 592390
0.15383071 -0.11863217 0.35900003 592390
0.15425891 -0.11830171 0.35800001 592390
0.15511559 -0.11830171 0.35800001 198149
0.15553661 -0.11797126 0.35700002 263944
0.15639092 -0.11797126 0.35700002 461323
0.15680474 -0.11764081 0.35600001 657932
0.15721379 -0.11731036 0.35500002 986895
0.15806332 -0.11731036 0.35500002 592907
0.15846518 -0.1169799 0.354 462091
0.15886226 -0.11664946 0.35300002 462091
0.15970699 -0.11664946 0.35300002 725263
0.16055173 -0.11664946 0.35300002 791571
0.16093923 -0.11631901 0.35200003 1317915
0.16178158 -0.11631901 0.35200003 1778204
0.1621619 -0.11598855 0.35100001 2368026
0.16300184 -0.11598855 0.35100001 2433302
0.16337501 -0.1156581 0.35000002 2563091
0.16421255 -0.1156581 0.35000002 3153429
0.16457853 -0.11532764 0.34900001 2891027
0.16541368 -0.11532764 0.34900001 3220503
0.16577248 -0.1149972 0.34800002 3088917
0.16612649 -0.11466674 0.347 3417882
0.16695684 -0.11466674 0.347 3549468
0.1673037 -0.11433629 0.34600002 3089689
0.16813166 -0.11433629 0.34600002 3287582
0.16895965 -0.11433629 0.34600002 3418654
0.16929692 -0.11400584 0.34500003 3614748
0.17012249 -0.11400584 0.34500003 4008990
0.17045256 -0.11367539 0.34400001 4534819
0.17127575 -0.11367539 0.34400001 4534303
0.17159867 -0.11334494 0.34300002 4140059
0.17241946 -0.11334494 0.34300002 3877400
0.17273518 -0.11301448 0.34200001 4076836
0.17304613 -0.11268403 0.34100002 3878685
0.17386214 -0.11268403 0.34100002 4008986
0.17416587 -0.11235358 0.34 4667940
0.17497949 -0.11235358 0.34 4799526
0.17527609 -0.11202313 0.33900002 4799526
0.17608732 -0.11202313 0.33900002 4535330
0.17637673 -0.11169268 0.33800003 5127721
0.17666131 -0.11136223 0.33700001 5324587
0.17746776 -0.11136223 0.33700001 5192233
0.17774521 -0.11103178 0.33600003 5783600
0.17854926 -0.11103178 0.33600003 5521452
0.17881951 -0.11070132 0.33500001 5390893
0.17962115 -0.11070132 0.33500001 5654065
0.17988424 -0.11037087 0.33400002 5588020
0.18068351 -0.11037087 0.33400002 5588020
0.18093939 -0.11004042 0.333 6113339
0.18173628 -0.11004042 0.333 5652016
0.18198498 -0.10970997 0.33200002 5521198
0.18277946 -0.10970997 0.33200002 4930088
0.18302101 -0.10937952 0.33100003 4535330
0.18325776 -0.10904907 0.33000001 4994854
0.18404745 -0.10904907 0.33000001 5453352
0.18427701 -0.10871862 0.32900003 5190180
0.1845018 -0.10838816 0.32800001 4862500
0.18528672 -0.10838816 0.32800001 4402719
0.18550433 -0.10805771 0.32700002 4271647
0.18571714 -0.10772725 0.32600001 4140061
0.18649726 -0.10772725 0.32600001 4272158
0.18670291 -0.1073968 0.32500002 4798502
0.18748064 -0.1073968 0.32500002 4732709
0.18825836 -0.1073968 0.32500002 4667686
0.18845442 -0.10706635 0.324 4733481
0.18922974 -0.10706635 0.324 4339236
0.19000508 -0.10706635 0.324 4470822
0.1901916 -0.1067359 0.32300001 4865065
0.19096453 -0.1067359 0.32300001 4864295
0.19173746 -0.1067359 0.32300001 5193260
0.19191439 -0.10640545 0.32200003 4865067
0.19268495 -0.10640545 0.32200003 3220757
0.19285469 -0.106075 0.32100001 4799789
0.19362284 -0.106075 0.32100001 4929579
0.19439098 -0.106075 0.32100001 4994086
0.19455117 -0.10574455 0.32000002 5257510
0.19531694 -0.10574455 0.32000002 4863520
0.1960827 -0.10574455 0.32000002 4732448
0.1962333 -0.10541409 0.31900001 4929575
0.19699666 -0.10541409 0.31900001 4995368
0.1971401 -0.10508364 0.31800002 5389612
0.19790107 -0.10508364 0.31800002 5455921
0.19866204 -0.10508364 0.31800002 5521712
0.1987959 -0.10475319 0.317 5456173
0.19955446 -0.10475319 0.317 5456173
0.19968115 -0.10442274 0.31600001 5456173
0.20043734 -0.10442274 0.31600001 5324587
0.20055684 -0.10409229 0.31500003 5521452
0.20131062 -0.10409229 0.31500003 5192749
0.20206442 -0.10409229 0.31500003 5390643
0.20281821 -0.10409229 0.31500003 5259055
0.20292574 -0.10376184 0.31400001 4864036
0.20367715 -0.10376184 0.31400001 5192737
-0.10463247 -0.075125448 0.22900002 5520428
-0.10408448 -0.075125448 0.22900002 5191463
-0.10353649 -0.075125448 0.22900002 5586221
-0.10343822 -0.075453497 0.23 5454889
-0.10288782 -0.075453497 0.23 5585962
-0.10233743 -0.075453497 0.23 5388583
-0.034950536 -0.055113863 0.16800001 5321507
-0.034548514 -0.055113863 0.16800001 5584679
-0.034146488 -0.055113863 0.16800001 5518886
-0.033945326 -0.055441923 0.16900001 5584679
-0.033540908 -0.055441923 0.16900001 5716265
-0.033136494 -0.055441923 0.16900001 6045228
-0.032732077 -0.055441923 0.16900001 5979689
-0.032327659 -0.055441923 0.16900001 5716517
-0.032112136 -0.055769976 0.17 5584931
-0.031705327 -0.055769976 0.17 5321759
-0.031298518 -0.055769976 0.17 5058846
-0.031073425 -0.056098036 0.171 5387811
-0.030664224 -0.056098036 0.171 5453604
-0.030255022 -0.056098036 0.171 5453604
-0.029845819 -0.056098036 0.171 5717030
-0.02960876 -0.056426097 0.17200001 5453858
-0.029197166 -0.056426097 0.17200001 5387552
-0.028785571 -0.056426097 0.17200001 5453345
-0.028373977 -0.056426097 0.17200001 5716517
-0.027710963 -0.056754157 0.17300001 5586214
-0.027296975 -0.056754157 0.17300001 5257249
-0.026882989 -0.056754157 0.17300001 5256225
-0.026469002 -0.056754157 0.17300001 5387298
-0.026055014 -0.056754157 0.17300001 5321505
-0.02578924 -0.057082213 0.17400001 5387298
-0.025372857 -0.057082213 0.17400001 6044712
-0.024956476 -0.057082213 0.17400001 6307884
-0.02468113 -0.057410274 0.17500001 5979689
-0.024262356 -0.057410274 0.17500001 5519138
-0.023843583 -0.057410274 0.17500001 5519138
-0.02342481 -0.057410274 0.17500001 5912872
-0.023137497 -0.057738334 0.17600001 5978665
-0.02271633 -0.057738334 0.17600001 5782310
-0.022295162 -0.057738334 0.17600001 5782823
-0.021873996 -0.057738334 0.17600001 6111788
-0.021452827 -0.057738334 0.17600001 5716517
-0.019566845 -0.058394447 0.178 5978919
-0.01914089 -0.058394447 0.178 6176296
-0.018714938 -0.058394447 0.178 6110503
-0.018288985 -0.058394447 0.178 5979687
-0.017863031 -0.058394447 0.178 5782308
-0.01753504 -0.058722507 0.17900001 5519136
-0.017106693 -0.058722507 0.17900001 5848101
-0.016678346 -0.058722507 0.17900001 5979687
-0.016340783 -0.059050567 0.18000001 5848101
-0.015910044 -0.059050567 0.18000001 5848362
-0.015479305 -0.059050567 0.18000001 5782571
-0.015048566 -0.059050567 0.18000001 5914157
-0.014699038 -0.059378628 0.18100001 5979950
-0.013473673 -0.059706684 0.18200001 5979689
-0.013038147 -0.059706684 0.18200001 6045482
-0.012602623 -0.059706684 0.18200001 6045482
-0.012167096 -0.059706684 0.18200001 6440240
-0.011731572 -0.059706684 0.18200001 4531219
-0.011358114 -0.060034744 0.18300001 5453093
-0.010920195 -0.060034744 0.18300001 5650985
-0.010482277 -0.060034744 0.18300001 5848616
-0.01004436 -0.060034744 0.18300001 5453856
-0.0096589355 -0.060362805 0.18400002 5979687
-0.0092186239 -0.060362805 0.18400002 5584929
-0.0087783122 -0.060362805 0.18400002 6045480
-0.0083380025 -0.060362805 0.18400002 5716517
-0.0079406127 -0.060690857 0.185 5782056
-0.0074979081 -0.060690857 0.185 5847849
-0.0070552044 -0.060690857 0.185 5979689
-0.0066125002 -0.060690857 0.185 6111786
-0.0062031462 -0.061018918 0.186 5782821
-0.0057580494 -0.061018918 0.186 5980200
-0.0053129522 -0.061018918 0.186 5914407
-0.0048678555 -0.061018918 0.186 5913892
-0.0044227582 -0.061018918 0.186 5979685
-0.0039990465 -0.061346978 0.18700001 5848099
-0.0035515563 -0.061346978 0.18700001 5782310
-0.0031040662 -0.061346978 0.18700001 5913896
-0.0026565762 -0.061346978 0.18700001 6242607
-0.0022208996 -0.061675038 0.18800001 6176814
-0.0017710165 -0.061675038 0.18800001 5979435
-0.0013211333 -0.061675038 0.18800001 6045482
-0.00087588467 -0.062003095 0.18900001 5914409
-0.00042360852 -0.062003095 0.18900001 5848616
2.8667524e-05 -0.062003095 0.18900001 5651235
0.00048348829 -0.062331155 0.19000001 6177579
0.00093815732 -0.062331155 0.19000001 6243372
0.0013928264 -0.062331155 0.19000001 6111786
0.0018474954 -0.062331155 0.19000001 6111786
0.0023142812 -0.062659211 0.19100001 5782821
0.0027713433 -0.062659211 0.19100001 6111786
0.0032453076 -0.062987268 0.192 5584929
0.003704763 -0.062987268 0.192 6505263
0.0041859066 -0.063315332 0.193 6177068
0.0046477546 -0.063315332 0.193 5979435
0.0051096026 -0.063315332 0.193 6045228
0.0056003183 -0.063643388 0.19400001 6177327
0.0060645593 -0.063643388 0.19400001 6111534
0.0065288004 -0.063643388 0.19400001 6242861
0.0070290882 -0.063971445 0.19500001 6439468
0.0074957218 -0.063971445 0.19500001 6636845
0.0079623563 -0.063971445 0.19500001 6505259
0.0084722163 -0.064299509 0.19600001 6571054
0.0089412425 -0.064299509 0.19600001 6439468
0.0094582811 -0.064627565 0.19700001 6373675
0.0099297017 -0.064627565 0.19700001 6242859
0.010453919 -0.064955622 0.19800001 6308652
0.010927732 -0.064955622 0.19800001 5980200
0.011459129 -0.065283686 0.19900002 5980970
0.011935335 -0.065283686 0.19900002 6046763
0.01247391 -0.065611742 0.2 6046763
0.012952508 -0.065611742 0.2 5717798
0.013498263 -0.065939799 0.20100001 5652005
0.014048804 -0.066267855 0.20200001 5914407
0.014532189 -0.066267855 0.20200001 6309167
0.01508991 -0.066595919 0.20300001 6308913
0.015652414 -0.066923976 0.20400001 6243120
0.016219705 -0.067252032 0.20500001 6243374
0.01671027 -0.067252032 0.20500001 6111788
0.01728474 -0.067580096 0.20600002 6178097
0.017777698 -0.067580096 0.20600002 6243892
0.018270655 -0.067580096 0.20600002 6046513
0.018854696 -0.067908153 0.20700002 5915438
0.019443525 -0.068236209 0.208 5981231
0.019941268 -0.068236209 0.208 6112304
0.020537276 -0.068564266 0.20900001 5914155
0.02113807 -0.06889233 0.21000001 5913642
0.02174365 -0.069220386 0.21100001 6374193
0.022354014 -0.069548443 0.21200001 6178097
0.022969166 -0.069876507 0.21300001 6112304
0.023589104 -0.070204563 0.21400002 6112304
0.024213824 -0.07053262 0.215 6177581
0.024728321 -0.07053262 0.215 5717030
0.025360223 -0.070860676 0.21600001 5717800
0.025877109 -0.070860676 0.21600001 5586473
0.026516192 -0.07118874 0.21700001 5783852
0.027160058 -0.071516797 0.21800001 5718059
0.027681731 -0.071516797 0.21800001 5849132
0.028332777 -0.071844853 0.21900001 5585962
0.028988611 -0.072172917 0.22000001 5586475
0.029515071 -0.072172917 0.22000001 5652266
0.030178081 -0.072500974 0.22100002 5455141
0.030845879 -0.072829038 0.22200002 5125663
0.031518459 -0.073157087 0.223 5257249
0.032052096 -0.073157087 0.223 5388583
0.032731861 -0.073485151 0.22400001 5323303
0.033416409 -0.073813207 0.22500001 5060901
0.033954833 -0.073813207 0.22500001 4929063
0.03464656 -0.074141264 0.22600001 5059879
0.035343073 -0.074469328 0.22700001 5191465
0.03604437 -0.074797384 0.22800002 5191465
0.036589976 -0.074797384 0.22800002 4929063
0.037298456 -0.075125448 0.22900002 4929063
0.038011719 -0.075453497 0.23 4797991
0.038729768 -0.075781561 0.23100001 4732198
0.039282549 -0.075781561 0.23100001 4535332
0.040007778 -0.076109618 0.23200001 4666918
0.040737797 -0.076437674 0.23300001 5127469
0.041472595 -0.076765738 0.23400001 4666918
0.042212185 -0.077093795 0.23500001 4403748
0.042956557 -0.077421859 0.23600002 4338471
0.043521304 -0.077421859 0.23600002 4272678
0.044272855 -0.077749915 0.23700002 4272678
0.045029193 -0.078077972 0.23800001 4732459
0.045598727 -0.078077972 0.23800001 4337701
0.046362244 -0.078406028 0.23900001 4666666
0.047130544 -0.078734085 0.24000001 4535080
0.047903635 -0.079062149 0.24100001 4731946
0.048681512 -0.079390205 0.24200001 4797739
0.049464174 -0.079718269 0.24300002 4797739
0.050045669 -0.079718269 0.24300002 4534567
0.050835509 -0.080046326 0.24400002 4206115
0.051630132 -0.080374382 0.245 4338471
0.052429546 -0.080702439 0.24600001 4404264
0.053018223 -0.080702439 0.24600001 4207139
0.053824816 -0.081030503 0.24700001 4536104
0.054636192 -0.081358559 0.24800001 4141346
0.055229653 -0.081358559 0.24800001 4141346
0.056048211 -0.081686616 0.24900001 4272678
0.056871548 -0.082014672 0.25 4141092
0.057699684 -0.082342736 0.25100002 3812127
0.058532592 -0.082670793 0.252 3746334
0.059370298 -0.082998857 0.25300002 4207139
0.06021278 -0.083326913 0.25400001 3812381
0.061060056 -0.083654977 0.25500003 3746588
0.061670266 -0.083654977 0.25500003 4074783
0.062524721 -0.083983026 0.25600001 4008988
0.063137323 -0.083983026 0.25600001 4272160
0.063998953 -0.084311083 0.257 4206367
0.064865373 -0.084639147 0.25800002 4008475
0.065482765 -0.084639147 0.25800002 3876889
0.066356353 -0.084967203 0.259 4008477
0.06723474 -0.085295267 0.26000002 4140063
0.067856915 -0.085295267 0.26000002 4074270
0.068742476 -0.085623324 0.26100001 4074268
0.069632828 -0.085951388 0.26200002 4140061
0.070527956 -0.086279437 0.26300001 3943195
0.071427867 -0.086607493 0.264 3811611
0.072332576 -0.086935557 0.26500002 4008990
0.073242061 -0.087263614 0.266 3811611
0.074156344 -0.087591678 0.26700002 3877404
0.074795268 -0.087591678 0.26700002 4008990
0.075716726 -0.087919734 0.26800001 3876891
0.076642968 -0.088247798 0.26900002 3745818
0.077573992 -0.088575847 0.27000001 3614748
0.078220099 -0.088575847 0.27000001 3483162
0.079158314 -0.088903911 0.27100003 3482392
0.080101304 -0.089231968 0.27200001 3613978
0.08104907 -0.089560024 0.273 3153427
0.082001641 -0.089888088 0.27400002 3153429
0.082958989 -0.090216145 0.27500001 3219992
0.083617061 -0.090216145 0.27500001 2759954
0.084581599 -0.090544209 0.27600002 2694931
0.085550904 -0.090872258 0.27700001 3023896
0.086525016 -0.091200322 0.27800003 2629138
0.08781752 -0.091856435 0.28 2563345
0.088803597 -0.092184499 0.28100002 2169614
0.089794442 -0.092512555 0.28200001 1708811
0.090790085 -0.092840619 0.28300002 2037776
0.092113718 -0.093496732 0.28500003 2103569
0.092795722 -0.093496732 0.28500003 2103571
0.093805715 -0.093824789 0.28600001 1512204
0.094820485 -0.094152845 0.287 1710094
0.095840067 -0.094480909 0.28800002 1644301
0.10133559 -0.097105376 0.296 1577993
0.10238867 -0.09743344 0.29700002 1380614
0.10344652 -0.097761489 0.29800001 1446407
0.10415962 -0.097761489 0.29800001 1314821
0.10522467 -0.098089553 0.29900002 1314821
0.10629448 -0.09841761 0.30000001 1511430
0.10701238 -0.09841761 0.30000001 1445639
0.10773028 -0.09841761 0.30000001 1249030
0.10844818 -0.09841761 0.30000001 1183750
0.10952997 -0.098745674 0.30100003 1052166
0.11763956 -0.10333849 0.31500003 986119
0.11876921 -0.10366655 0.31600001 854533
0.12180382 -0.10432267 0.31800002 592133
0.1225648 -0.10432267 0.31800002 394758
0.12293794 -0.10399461 0.317 592137
0.14693846 -0.12203784 0.37200001 592137
0.14782865 -0.12203784 0.37200001 133128
0.14831907 -0.12170978 0.37100002 67335
0.14880469 -0.12138171 0.37 264714
0.14969011 -0.12138171 0.37 67333
0.15016855 -0.12105367 0.36900002 67333
0.15064222 -0.12072561 0.36800003 198149
0.15069933 -0.12006949 0.36600003 263942
0.15116103 -0.11974142 0.36500001 263942
0.15161794 -0.11941337 0.36400002 394758
0.15207006 -0.1190853 0.36300001 328965
0.15251741 -0.11875726 0.36200002 263944
0.15295996 -0.1184292 0.36100003 395528
0.15339772 -0.11810113 0.36000001 198149
0.15383071 -0.11777308 0.35900003 395781
0.15425891 -0.11744501 0.35800001 328965
0.15468232 -0.11711696 0.35700002 526344
0.15553661 -0.11711696 0.35700002 461323
0.15595284 -0.11678889 0.35600001 395530
0.15680474 -0.11678889 0.35600001 527116
0.15721379 -0.11646084 0.35500002 658702
0.15761806 -0.11613277 0.354 527114
0.15846518 -0.11613277 0.354 593677
0.15886226 -0.11580472 0.35300002 725263
0.15970699 -0.11580472 0.35300002 725778
0.16009691 -0.11547667 0.35200003 989722
0.16093923 -0.11547667 0.35200003 1121304
0.16132195 -0.1151486 0.35100001 1843225
0.1621619 -0.1151486 0.35100001 1710866
0.16253746 -0.11482055 0.35000002 2366739
0.16337501 -0.11482055 0.35000002 3417884
0.16374336 -0.11449248 0.34900001 3811359
0.16457853 -0.11449248 0.34900001 3548185
0.16493972 -0.11416443 0.34800002 3352089
0.16529611 -0.11383636 0.347 3286296
0.16612649 -0.11383636 0.347 3352089
0.16647571 -0.11350831 0.34600002 3417369
0.1673037 -0.11350831 0.34600002 3746588
0.16813166 -0.11350831 0.34600002 3812381
0.16847132 -0.11318026 0.34500003 3483416
0.16929692 -0.11318026 0.34500003 4008736
0.16962938 -0.11285219 0.34400001 4008477
0.17045256 -0.11285219 0.34400001 4140061
0.17077787 -0.11252414 0.34300002 4074266
0.17159867 -0.11252414 0.34300002 4403485
0.17191677 -0.11219607 0.34200001 4074520
0.17273518 -0.11219607 0.34200001 4403231
0.17304613 -0.11186802 0.34100002 4995368
0.17386214 -0.11186802 0.34100002 4732198
0.17416587 -0.11153995 0.34 5193260
0.17497949 -0.11153995 0.34 5193260
0.17527609 -0.1112119 0.33900002 5192747
0.1755679 -0.11088385 0.33800003 4863782
0.17637673 -0.11088385 0.33800003 4732196
0.17666131 -0.11055578 0.33700001 5915186
0.17746776 -0.11055578 0.33700001 5783600
0.17774521 -0.11022773 0.33600003 5652268
0.17854926 -0.11022773 0.33600003 5850415
0.17881951 -0.10989966 0.33500001 5719597
0.17962115 -0.10989966 0.33500001 5390891
0.17988424 -0.10957161 0.33400002 5521714
0.18068351 -0.10957161 0.33400002 5389614
0.18093939 -0.10924354 0.333 5191463
0.18173628 -0.10924354 0.333 6111282
0.18198498 -0.10891549 0.33200002 5979696
0.18222892 -0.10858744 0.33100003 5192487
0.18302101 -0.10858744 0.33100003 5192487
0.18325776 -0.10825937 0.33000001 5191715
0.18348974 -0.10793132 0.32900003 5321507
0.18427701 -0.10793132 0.32900003 5387813
0.1845018 -0.10760325 0.32800001 5322790
0.18472181 -0.1072752 0.32700002 5191717
0.18550433 -0.1072752 0.32700002 4929315
0.18571714 -0.10694713 0.32600001 4929315
0.18592519 -0.10661908 0.32500002 4403231
0.18670291 -0.10661908 0.32500002 4864295
0.18748064 -0.10661908 0.32500002 5127467
0.1876791 -0.10629102 0.324 4403235
0.18845442 -0.10629102 0.324 4731946
0.18922974 -0.10629102 0.324 4535080
0.18941866 -0.10596296 0.32300001 4732459
0.1901916 -0.10596296 0.32300001 4863784
0.19096453 -0.10596296 0.32300001 4864295
0.19114386 -0.10563491 0.32200003 5259053
0.19191439 -0.10563491 0.32200003 4271908
0.19268495 -0.10563491 0.32200003 4601897
0.19285469 -0.10530684 0.32100001 4667690
0.19362284 -0.10530684 0.32100001 4601897
0.19378541 -0.10497878 0.32000002 4929065
0.19455117 -0.10497878 0.32000002 4994854
0.19531694 -0.10497878 0.32000002 5192485
0.19546993 -0.10465072 0.31900001 4798241
0.1962333 -0.10465072 0.31900001 5061415
0.19699666 -0.10465072 0.31900001 5653038
0.1971401 -0.10432267 0.31800002 5061161
0.19790107 -0.10432267 0.31800002 4995368
0.19803731 -0.10399461 0.317 5061161
0.1987959 -0.10399461 0.317 4863782
0.19955446 -0.10399461 0.317 5324587
0.19968115 -0.10366655 0.31600001 5850415
0.20043734 -0.10366655 0.31600001 5455657
0.20055684 -0.10333849 0.31500003 5587245
0.20131062 -0.10333849 0.31500003 6179130
